ply
format ascii 1.0
element vertex 87
property float x
property float y
property float z
property uchar red
property uchar green
property uchar blue
end_header
-0.250000 -1.350000 0.850000 60 71 63
-0.050000 -1.350000 0.950000 69 82 71
0.150000 -1.450000 1.050000 68 83 77
0.150000 -1.350000 0.750000 67 80 70
0.150000 -1.350000 0.850000 66 80 71
0.150000 -1.350000 1.150000 70 86 78
0.150000 -1.350000 1.250000 69 82 75
0.150000 -1.250000 1.150000 68 81 70
0.150000 -1.250000 1.250000 69 83 63
0.150000 -1.250000 1.450000 65 77 72
0.150000 -1.250000 1.550000 64 77 66
0.150000 -1.150000 1.550000 65 77 68
0.250000 -1.550000 0.050000 60 74 63
0.250000 -1.550000 0.150000 60 72 59
0.250000 -1.550000 0.250000 60 75 68
0.250000 -1.550000 0.450000 65 78 70
0.250000 -1.450000 0.350000 63 74 64
0.250000 -1.450000 0.450000 66 77 71
0.250000 -1.450000 0.550000 67 82 71
0.250000 -1.450000 0.650000 67 79 70
0.250000 -1.450000 0.750000 66 78 70
0.250000 -1.450000 0.850000 66 81 70
0.250000 -1.450000 0.950000 68 82 67
0.250000 -1.450000 1.050000 67 81 70
0.250000 -1.450000 1.150000 68 79 68
0.250000 -1.450000 1.250000 66 81 71
0.250000 -1.350000 0.450000 66 78 72
0.250000 -1.350000 0.550000 65 78 66
0.250000 -1.350000 0.650000 67 82 66
0.250000 -1.350000 0.750000 68 79 64
0.250000 -1.350000 0.950000 64 82 69
0.250000 -1.350000 1.050000 64 76 72
0.250000 -1.350000 1.150000 66 82 70
0.250000 -1.350000 1.350000 65 80 67
0.250000 -1.350000 1.450000 63 76 68
0.250000 -1.350000 1.550000 57 74 63
0.250000 -1.250000 0.850000 69 86 77
0.250000 -1.250000 1.250000 65 79 61
0.250000 -1.250000 1.350000 68 81 70
0.250000 -1.250000 1.450000 64 78 63
0.250000 -1.250000 1.550000 62 73 62
0.250000 -1.150000 1.550000 62 71 64
0.350000 -1.550000 1.050000 67 80 69
0.350000 -1.450000 0.550000 66 81 64
0.350000 -1.450000 0.650000 67 82 71
0.350000 -1.450000 0.750000 66 81 72
0.350000 -1.450000 0.850000 70 87 75
0.350000 -1.450000 0.950000 69 86 68
0.350000 -1.450000 1.050000 71 82 74
0.350000 -1.450000 1.150000 64 80 68
0.350000 -1.450000 1.250000 66 80 69
0.350000 -1.450000 1.350000 61 75 67
0.350000 -1.350000 0.450000 65 80 69
0.350000 -1.350000 0.650000 65 82 67
0.350000 -1.350000 0.850000 69 85 73
0.350000 -1.350000 0.950000 68 80 66
0.350000 -1.350000 1.050000 67 81 71
0.350000 -1.350000 1.150000 65 74 70
0.350000 -1.350000 1.250000 66 78 66
0.350000 -1.350000 1.350000 64 80 70
0.350000 -1.350000 1.450000 64 79 66
0.350000 -1.250000 0.450000 68 81 70
0.350000 -1.250000 0.550000 65 83 68
0.350000 -1.250000 0.650000 69 83 76
0.350000 -1.250000 0.750000 68 81 72
0.350000 -1.250000 1.350000 66 78 67
0.450000 -1.450000 0.450000 67 79 71
0.450000 -1.450000 0.550000 68 81 73
0.450000 -1.450000 0.650000 66 82 72
0.450000 -1.450000 0.750000 68 84 72
0.450000 -1.450000 0.850000 67 76 72
0.450000 -1.450000 0.950000 66 80 65
0.450000 -1.350000 0.450000 68 81 70
0.450000 -1.350000 0.550000 68 80 69
0.450000 -1.350000 0.650000 68 83 70
0.450000 -1.350000 0.750000 70 86 82
0.450000 -1.350000 0.850000 63 80 67
0.450000 -1.350000 0.950000 67 83 73
0.450000 -1.350000 1.450000 63 70 68
0.450000 -1.250000 0.250000 66 80 65
0.450000 -1.250000 0.350000 68 83 74
0.450000 -1.250000 0.450000 72 80 71
0.450000 -1.250000 0.550000 70 80 74
0.450000 -1.250000 0.650000 67 79 70
0.450000 -1.250000 0.750000 71 83 76
0.550000 -1.450000 1.450000 60 73 63
0.650000 -1.450000 1.450000 59 75 63
